ply
format ascii 1.0
element vertex 1200
property float x
property float y
property float z
property uchar red
property uchar green
property uchar blue
end_header
2.437086 0.000000 -4.068874 129 117 101 
2.459504 0.000000 -4.062149 132 117 103 
2.485950 0.000000 -4.062149 134 118 104 
2.504119 0.000000 -4.048765 120 103 89 
-2.449761 -0.025518 -3.919617 29 29 24 
-2.424242 -0.025518 -3.919617 14 16 13 
-2.402556 -0.025559 -3.925879 10 17 16 
-2.376997 -0.025559 -3.925879 9 21 22 
-2.351438 -0.025559 -3.925879 12 27 29 
-2.329600 -0.025600 -3.932160 17 33 34 
-2.304000 -0.025600 -3.932160 25 39 39 
-2.278400 -0.025600 -3.932160 34 46 46 
-1.686324 -0.020075 -3.083564 27 47 48 
-1.662078 -0.020025 -3.075845 28 40 40 
-1.642053 -0.020025 -3.075845 59 62 60 
-1.642586 -0.020279 -3.114829 110 105 101 
-1.622307 -0.020279 -3.114829 113 105 95 
-1.583960 -0.020050 -3.079699 116 107 95 
-1.563910 -0.020050 -3.079699 116 106 97 
-1.540000 -0.020000 -3.072000 114 105 98 
-1.253919 -0.016719 -2.568025 32 32 28 
-1.233333 -0.016667 -2.560000 13 19 15 
-1.214137 -0.016632 -2.554678 29 40 36 
-1.079557 -0.016113 -2.474925 32 40 35 
-1.000000 -0.015152 -2.327273 24 32 27 
-0.981132 -0.015094 -2.318491 17 24 20 
-0.966038 -0.015094 -2.318491 22 28 24 
-0.949153 -0.015066 -2.314124 24 29 25 
-0.934087 -0.015066 -2.314124 32 36 31 
-1.749104 -0.028674 -4.404301 49 52 46 
-1.685714 -0.028571 -4.388572 24 25 19 
-1.657143 -0.028571 -4.388572 17 18 10 
-1.628571 -0.028571 -4.388572 26 24 15 
-1.608618 -0.028725 -4.412209 52 42 30 
-1.582734 -0.028777 -4.420144 60 42 30 
-1.553957 -0.028777 -4.420144 59 37 25 
-1.525180 -0.028777 -4.420144 64 40 29 
-1.496403 -0.028777 -4.420144 68 43 33 
-1.462366 -0.028674 -4.404301 69 46 34 
-1.431127 -0.028623 -4.396422 65 46 34 
-1.400000 -0.028571 -4.388572 51 37 24 
-1.364121 -0.028419 -4.365187 45 39 30 
-1.335702 -0.028419 -4.365187 132 132 127 
-0.078947 -0.013158 -2.021053 72 68 59 
-0.065681 -0.013136 -2.017734 70 67 58 
-0.052545 -0.013136 -2.017734 58 53 43 
-0.039377 -0.013126 -2.016079 76 69 54 
-0.026251 -0.013126 -2.016079 84 73 53 
-0.013126 -0.013126 -2.016079 102 85 61 
0.000000 -0.013136 -2.017734 125 85 57 
0.013136 -0.013136 -2.017734 134 74 41 
0.026273 -0.013136 -2.017734 149 75 36 
0.254980 -0.015936 -2.447809 203 90 37 
0.269841 -0.015873 -2.438095 199 89 34 
0.284024 -0.015779 -2.423669 193 86 33 
0.297747 -0.015671 -2.407052 188 83 34 
0.312500 -0.015625 -2.400000 187 85 38 
0.328125 -0.015625 -2.400000 179 81 37 
0.343750 -0.015625 -2.400000 166 69 27 
0.360078 -0.015656 -2.404697 155 62 22 
0.376840 -0.015702 -2.411776 136 55 21 
0.440000 -0.010000 -1.536000 65 23 18 
0.449438 -0.009988 -1.534082 75 23 21 
0.458853 -0.009975 -1.532170 79 22 16 
0.468536 -0.009969 -1.531215 80 26 14 
0.477612 -0.009950 -1.528358 92 32 23 
0.445455 -0.009091 -1.396364 91 30 21 
0.454545 -0.009091 -1.396364 100 43 30 
0.463636 -0.009091 -1.396364 172 113 97 
0.472459 -0.009086 -1.395571 136 64 48 
0.481271 -0.009081 -1.394779 130 45 24 
0.490352 -0.009081 -1.394779 145 59 32 
0.498866 -0.009070 -1.393197 153 73 39 
0.507649 -0.009065 -1.392408 158 77 39 
0.516421 -0.009060 -1.391620 162 81 43 
0.524887 -0.009050 -1.390045 157 81 46 
0.531532 -0.009009 -1.383784 153 85 54 
0.540541 -0.009009 -1.383784 152 93 66 
0.549550 -0.009009 -1.383784 152 102 77 
0.558559 -0.009009 -1.383784 149 105 84 
0.567568 -0.009009 -1.383784 140 103 84 
0.576577 -0.009009 -1.383784 126 105 86 
2.445183 -0.026578 -4.082392 127 116 101 
2.463576 -0.026490 -4.068874 129 115 102 
2.485950 -0.026446 -4.062149 131 116 103 
2.508251 -0.026403 -4.055446 117 101 88 
-2.445860 -0.050955 -3.913376 26 26 21 
-2.424242 -0.051037 -3.919617 13 14 11 
-2.402556 -0.051118 -3.925879 10 17 15 
-2.376997 -0.051118 -3.925879 10 21 22 
-2.355200 -0.051200 -3.932160 12 27 29 
-2.329600 -0.051200 -3.932160 16 32 33 
-2.304000 -0.051200 -3.932160 22 36 36 
-2.278400 -0.051200 -3.932160 29 42 41 
-1.662078 -0.040050 -3.075845 27 40 39 
-1.642053 -0.040050 -3.075845 55 59 56 
-1.638432 -0.040455 -3.106953 103 99 95 
-1.618205 -0.040455 -3.106953 110 101 93 
-1.580000 -0.040000 -3.072000 114 104 95 
-1.560000 -0.040000 -3.072000 117 106 98 
-1.538077 -0.039950 -3.068165 116 105 100 
-1.271967 -0.033473 -2.570711 96 89 85 
-1.250000 -0.033333 -2.560000 31 28 25 
-1.230769 -0.033264 -2.554678 10 14 10 
-1.212876 -0.033229 -2.552025 16 24 20 
-1.192547 -0.033126 -2.544100 23 29 25 
-1.167523 -0.032888 -2.525797 28 33 29 
-1.149897 -0.032854 -2.523203 27 32 28 
-1.131148 -0.032787 -2.518033 21 26 22 
-0.949153 -0.030132 -2.314124 36 38 35 
-0.934087 -0.030132 -2.314124 46 48 44 
-1.749104 -0.057348 -4.404301 51 53 48 
-1.720430 -0.057348 -4.404301 45 45 40 
-1.685714 -0.057143 -4.388572 28 27 22 
-1.657143 -0.057143 -4.388572 21 19 13 
-1.628571 -0.057143 -4.388572 32 27 19 
-1.608618 -0.057451 -4.412209 81 65 51 
-1.582734 -0.057554 -4.420144 96 70 55 
-1.556757 -0.057658 -4.428108 92 62 49 
-1.527928 -0.057658 -4.428108 101 68 58 
-1.504521 -0.057866 -4.444123 110 76 68 
-1.475588 -0.057866 -4.444123 107 74 67 
-1.438849 -0.057554 -4.420144 95 65 58 
-1.402504 -0.057245 -4.396422 66 43 35 
-1.366548 -0.056940 -4.372954 52 45 35 
-1.338078 -0.056940 -4.372954 139 141 132 
-0.065681 -0.026273 -2.017734 69 70 55 
-0.052502 -0.026251 -2.016079 61 57 39 
-0.039377 -0.026251 -2.016079 85 70 48 
-0.026251 -0.026251 -2.016079 103 75 51 
-0.013126 -0.026251 -2.016079 114 73 45 
0.000000 -0.026273 -2.017734 132 72 39 
0.013136 -0.026273 -2.017734 148 74 35 
0.026316 -0.026316 -2.021053 163 78 34 
0.255234 -0.031904 -2.450249 202 89 36 
0.269574 -0.031715 -2.435679 198 88 33 
0.283744 -0.031527 -2.421281 192 85 32 
0.297456 -0.031311 -2.404697 187 82 33 
0.312500 -0.031250 -2.400000 182 80 34 
0.327805 -0.031220 -2.397659 175 76 33 
0.343415 -0.031220 -2.397659 166 70 28 
0.359024 -0.031220 -2.397659 155 63 23 
0.375000 -0.031250 -2.400000 139 58 22 
0.449719 -0.019988 -1.535041 99 62 63 
0.459426 -0.019975 -1.534082 106 69 68 
0.468828 -0.019950 -1.532170 113 78 71 
0.478505 -0.019938 -1.531215 126 85 68 
0.488169 -0.019925 -1.530262 122 81 58 
0.498132 -0.019925 -1.530262 119 85 61 
0.463636 -0.018182 -1.396364 148 113 92 
0.472459 -0.018171 -1.395571 121 78 63 
0.481271 -0.018161 -1.394779 111 62 50 
0.490352 -0.018161 -1.394779 109 63 51 
0.549550 -0.018018 -1.383784 167 85 55 
0.558559 -0.018018 -1.383784 172 86 54 
0.567568 -0.018018 -1.383784 168 88 54 
2.593750 -0.062500 -4.800000 134 123 109 
2.574713 -0.061303 -4.708046 128 117 103 
2.600382 -0.061185 -4.699044 117 107 92 
2.630975 -0.061185 -4.699044 112 102 87 
2.445183 -0.053156 -4.082392 114 104 89 
2.467662 -0.053068 -4.075622 123 111 97 
2.490066 -0.052980 -4.068874 122 109 95 
2.512397 -0.052893 -4.062149 104 91 77 
-2.445860 -0.076433 -3.913376 26 26 21 
-2.428115 -0.076677 -3.925879 12 14 10 
-2.410256 -0.076923 -3.938462 9 16 15 
-2.384615 -0.076923 -3.938462 9 20 21 
-2.358974 -0.076923 -3.938462 11 26 28 
-2.333333 -0.076923 -3.938462 14 30 31 
-2.304000 -0.076800 -3.932160 18 33 33 
-2.278400 -0.076800 -3.932160 24 37 36 
-1.660000 -0.060000 -3.072000 26 40 39 
-1.637953 -0.059925 -3.068165 51 56 53 
-1.617977 -0.059925 -3.068165 97 93 89 
-1.600000 -0.060000 -3.072000 103 96 89 
-1.574097 -0.059776 -3.060523 108 99 92 
-1.554172 -0.059776 -3.060523 112 101 96 
-1.253919 -0.050157 -2.568025 32 29 26 
-1.233333 -0.050000 -2.560000 11 13 9 
-1.212876 -0.049844 -2.552025 20 25 22 
-1.192547 -0.049689 -2.544100 28 32 29 
-1.166324 -0.049281 -2.523203 35 37 34 
-1.147541 -0.049180 -2.518033 39 41 38 
-1.127681 -0.049030 -2.510317 26 28 25 
-1.112474 -0.049080 -2.512883 30 31 28 
-0.950943 -0.045283 -2.318491 47 48 46 
-0.935849 -0.045283 -2.318491 61 62 58 
-1.752244 -0.086176 -4.412209 58 58 54 
-1.723519 -0.086176 -4.412209 54 52 47 
-1.685714 -0.085714 -4.388572 31 28 23 
-1.657143 -0.085714 -4.388572 24 20 14 
-1.628571 -0.085714 -4.388572 39 33 24 
-1.608618 -0.086176 -4.412209 96 80 63 
-1.585586 -0.086486 -4.428108 121 97 76 
-1.556757 -0.086486 -4.428108 123 95 79 
-1.550274 -0.087751 -4.492870 127 95 84 
-1.521024 -0.087751 -4.492870 139 106 98 
-1.483636 -0.087273 -4.468364 138 106 100 
-1.446655 -0.086799 -4.444123 114 86 81 
-1.410072 -0.086331 -4.420144 73 50 45 
-1.371429 -0.085714 -4.388572 47 41 31 
-1.342857 -0.085714 -4.388572 127 131 118 
-0.065681 -0.039409 -2.017734 66 67 46 
-0.052502 -0.039377 -2.016079 76 67 41 
-0.039377 -0.039377 -2.016079 95 67 39 
-0.026251 -0.039377 -2.016079 117 67 38 
-0.013136 -0.039409 -2.017734 136 70 38 
0.000000 -0.039409 -2.017734 152 73 34 
0.013158 -0.039474 -2.021053 164 77 31 
0.026337 -0.039506 -2.022716 174 79 30 
0.255489 -0.047904 -2.452695 201 88 36 
0.269574 -0.047572 -2.435679 197 88 32 
0.283186 -0.047198 -2.416519 192 84 31 
0.296875 -0.046875 -2.400000 186 82 32 
0.311891 -0.046784 -2.395322 182 80 34 
0.326848 -0.046693 -2.390661 175 77 33 
0.342412 -0.046693 -2.390661 168 72 30 
0.357977 -0.046693 -2.390661 156 64 23 
0.373905 -0.046738 -2.392989 142 59 22 
0.473829 -0.033058 -1.692562 120 80 59 
0.440000 -0.030000 -1.536000 104 76 65 
0.449438 -0.029963 -1.534082 103 82 75 
0.458853 -0.029925 -1.532170 109 94 87 
0.468828 -0.029925 -1.532170 123 111 99 
0.478505 -0.029907 -1.531215 132 121 95 
0.488474 -0.029907 -1.531215 119 112 80 
0.498442 -0.029907 -1.531215 108 110 78 
0.527363 -0.029851 -1.528358 96 84 74 
2.562500 -0.093750 -4.800000 135 122 106 
2.544061 -0.091954 -4.708046 135 122 107 
2.574713 -0.091954 -4.708046 130 119 104 
2.595420 -0.091603 -4.690076 117 107 93 
2.625954 -0.091603 -4.690076 109 100 85 
2.656489 -0.091603 -4.690076 116 107 93 
2.461539 -0.080268 -4.109699 116 109 93 
2.471761 -0.079734 -4.082392 122 113 98 
2.498339 -0.079734 -4.082392 121 112 97 
2.516556 -0.079470 -4.068874 104 95 80 
-2.461539 -0.102564 -3.938462 29 29 24 
-2.598291 -0.109402 -4.201026 14 16 12 
-2.584193 -0.109966 -4.222681 9 16 14 
-2.392283 -0.102894 -3.951126 8 20 20 
-2.366560 -0.102894 -3.951126 10 25 27 
-2.340836 -0.102894 -3.951126 14 30 31 
-2.307692 -0.102564 -3.938462 17 32 32 
-2.278400 -0.102400 -3.932160 18 32 31 
-1.660000 -0.080000 -3.072000 23 38 37 
-1.637953 -0.079900 -3.068165 42 48 45 
-1.617977 -0.079900 -3.068165 81 80 75 
-1.596010 -0.079801 -3.064339 87 83 78 
-1.568238 -0.079404 -3.049132 90 84 79 
-1.548387 -0.079404 -3.049132 93 86 82 
-1.171134 -0.065979 -2.533608 53 54 51 
-1.147541 -0.065574 -2.518033 55 55 53 
-1.128834 -0.065440 -2.512883 45 45 43 
-1.112474 -0.065440 -2.512883 48 48 46 
-0.969697 -0.060606 -2.327273 65 66 63 
-0.951841 -0.060434 -2.320680 45 47 44 
-0.937618 -0.060491 -2.322873 54 55 51 
-1.752244 -0.114901 -4.412209 62 62 58 
-1.723519 -0.114901 -4.412209 70 70 64 
-1.685714 -0.114286 -4.388572 49 47 42 
-1.657143 -0.114286 -4.388572 45 42 36 
-1.628571 -0.114286 -4.388572 60 56 47 
-1.608618 -0.114901 -4.412209 88 82 63 
-1.585586 -0.115315 -4.428108 103 93 70 
-1.582418 -0.117216 -4.501099 109 94 74 
-1.558824 -0.117647 -4.517647 108 90 75 
-1.529412 -0.117647 -4.517647 113 93 82 
-1.500000 -0.117647 -4.517647 116 97 90 
-1.451906 -0.116152 -4.460254 105 90 83 
-1.410072 -0.115108 -4.420144 76 65 59 
-1.381295 -0.115108 -4.420144 51 51 39 
-0.065789 -0.052632 -2.021053 69 59 33 
-0.052545 -0.052545 -2.017734 87 64 32 
-0.039409 -0.052545 -2.017734 111 66 31 
-0.026273 -0.052545 -2.017734 137 68 33 
-0.013136 -0.052545 -2.017734 158 71 35 
0.000000 -0.052632 -2.021053 168 75 31 
0.013158 -0.052632 -2.021053 175 78 28 
0.026337 -0.052675 -2.022716 182 80 29 
0.039571 -0.052762 -2.026051 188 82 30 
0.256513 -0.064128 -2.462525 202 89 36 
0.269041 -0.063304 -2.430861 198 88 33 
0.282353 -0.062745 -2.409412 192 85 32 
0.296296 -0.062378 -2.395322 187 82 33 
0.310982 -0.062196 -2.388338 180 79 32 
0.325897 -0.062076 -2.383705 174 75 32 
0.341416 -0.062076 -2.383705 168 72 30 
0.356935 -0.062076 -2.383705 158 65 24 
0.373178 -0.062196 -2.388338 145 61 22 
0.473829 -0.044077 -1.692562 129 73 45 
0.439725 -0.039975 -1.535041 84 51 28 
0.449158 -0.039925 -1.533125 61 46 23 
0.458853 -0.039900 -1.532170 65 58 34 
0.468536 -0.039875 -1.531215 83 79 54 
0.478505 -0.039875 -1.531215 99 93 68 
0.488169 -0.039851 -1.530262 76 74 48 
0.498442 -0.039875 -1.531215 68 73 47 
0.508095 -0.039851 -1.530262 142 145 125 
0.527363 -0.039801 -1.528358 65 52 46 
2.531250 -0.125000 -4.800000 136 121 102 
2.562500 -0.125000 -4.800000 136 122 104 
2.593750 -0.125000 -4.800000 136 123 106 
2.579654 -0.122841 -4.717083 129 117 101 
2.605364 -0.122605 -4.708046 111 100 85 
2.625954 -0.122137 -4.690076 103 93 80 
2.656489 -0.122137 -4.690076 112 103 90 
2.482293 -0.107926 -4.144351 123 116 100 
2.492462 -0.107203 -4.116583 121 115 99 
2.519263 -0.107203 -4.116583 121 114 99 
2.541806 -0.107023 -4.109699 108 101 85 
-2.634648 -0.137221 -4.215437 28 28 23 
-2.607204 -0.137221 -4.215437 14 16 12 
-2.579760 -0.137221 -4.215437 9 16 15 
-2.492462 -0.134003 -4.116583 9 21 22 
-2.405229 -0.130719 -4.015687 12 27 29 
-2.355987 -0.129450 -3.976699 17 32 33 
-2.318841 -0.128824 -3.957488 18 33 32 
-2.293076 -0.128824 -3.957488 15 28 27 
-1.660000 -0.100000 -3.072000 17 33 31 
-1.637953 -0.099875 -3.068165 24 31 28 
-1.617977 -0.099875 -3.068165 52 53 48 
-1.596010 -0.099751 -3.064339 57 57 52 
-1.566295 -0.099133 -3.045353 59 59 54 
-1.546468 -0.099133 -3.045353 61 59 55 
-1.151079 -0.082220 -2.525797 60 63 59 
-1.128834 -0.081800 -2.512883 59 62 59 
-1.112474 -0.081800 -2.512883 61 64 61 
-0.952741 -0.075614 -2.322873 60 65 61 
-0.937618 -0.075614 -2.322873 63 68 63 
-1.752244 -0.143627 -4.412209 68 72 66 
-1.745455 -0.145455 -4.468364 72 75 69 
-1.694794 -0.143627 -4.412209 70 72 65 
-1.657143 -0.142857 -4.388572 72 73 65 
-1.637343 -0.143627 -4.412209 76 76 67 
-1.614414 -0.144144 -4.428108 76 80 62 
-1.718750 -0.156250 -4.800000 76 80 59 
-1.687500 -0.156250 -4.800000 81 81 63 
-1.470588 -0.147059 -4.517647 78 78 69 
-1.441176 -0.147059 -4.517647 72 75 66 
-0.074697 -0.074697 -2.294678 96 65 37 
-0.059646 -0.074557 -2.290401 110 64 30 
-0.044693 -0.074488 -2.288268 135 71 32 
-0.029823 -0.074557 -2.290401 154 72 33 
-0.014898 -0.074488 -2.288268 171 75 35 
0.000000 -0.065844 -2.022716 177 76 31 
0.013169 -0.065844 -2.022716 181 79 29 
0.026381 -0.065952 -2.026051 186 81 31 
0.269041 -0.079130 -2.430861 198 88 33 
0.281525 -0.078201 -2.402346 192 85 32 
0.295720 -0.077821 -2.390661 187 82 32 
0.310078 -0.077519 -2.381395 180 79 32 
0.325266 -0.077444 -2.379090 173 75 31 
0.338462 -0.076923 -2.363077 167 71 29 
0.353846 -0.076923 -2.363077 159 65 24 
0.371015 -0.077295 -2.374493 145 60 19 
0.308087 -0.051348 -1.577407 79 72 59 
0.318357 -0.051348 -1.577407 43 35 32 
0.440000 -0.050000 -1.536000 113 72 38 
0.449158 -0.049906 -1.533125 80 56 19 
0.458853 -0.049875 -1.532170 72 54 16 
0.468828 -0.049875 -1.532170 95 76 38 
0.478803 -0.049875 -1.532170 104 88 60 
0.488474 -0.049844 -1.531215 70 63 40 
0.498753 -0.049875 -1.532170 59 60 35 
0.517413 -0.049751 -1.528358 149 142 127 
0.526381 -0.049659 -1.525512 50 38 28 
0.537313 -0.049751 -1.528358 34 27 16 
2.531250 -0.156250 -4.800000 139 121 100 
2.562500 -0.156250 -4.800000 138 121 102 
2.593750 -0.156250 -4.800000 140 125 106 
2.625000 -0.156250 -4.800000 132 119 102 
2.605364 -0.153257 -4.708046 114 101 87 
2.630975 -0.152964 -4.699044 105 95 82 
2.661568 -0.152964 -4.699044 111 102 89 
2.463621 -0.135364 -4.158376 115 108 92 
2.486486 -0.135135 -4.151351 111 105 89 
2.513514 -0.135135 -4.151351 111 106 89 
2.540540 -0.135135 -4.151351 111 107 90 
2.567568 -0.135135 -4.151351 96 94 76 
-2.639175 -0.164948 -4.222681 25 25 20 
-2.607204 -0.164666 -4.215437 14 16 12 
-2.570940 -0.164103 -4.201026 10 17 16 
-2.526316 -0.162988 -4.172496 10 22 23 
-2.465662 -0.160804 -4.116583 12 27 29 
-2.418605 -0.159468 -4.082392 17 32 33 
-1.662078 -0.120150 -3.075845 14 32 30 
-1.637953 -0.119850 -3.068165 11 20 16 
-1.615960 -0.119701 -3.064339 22 25 20 
-1.596010 -0.119701 -3.064339 21 26 21 
-1.566295 -0.118959 -3.045353 21 27 23 
-1.546468 -0.118959 -3.045353 23 27 23 
-1.155831 -0.099071 -2.536223 24 30 26 
-1.132308 -0.098462 -2.520616 25 31 27 
-1.113613 -0.098260 -2.515455 25 31 27 
-1.781250 -0.187500 -4.800000 31 37 27 
-1.750000 -0.187500 -4.800000 30 40 27 
-1.718750 -0.187500 -4.800000 29 39 25 
-1.687500 -0.187500 -4.800000 31 38 25 
-1.656250 -0.187500 -4.800000 32 35 24 
0.267980 -0.094581 -2.421281 197 87 32 
0.279883 -0.093294 -2.388338 191 84 31 
0.294288 -0.092933 -2.379090 186 81 32 
0.307692 -0.092308 -2.363077 180 79 32 
0.321839 -0.091954 -2.354023 173 75 31 
0.337165 -0.091954 -2.354023 167 71 29 
0.352153 -0.091866 -2.351770 159 65 24 
0.367816 -0.091954 -2.354023 146 60 17 
0.383142 -0.091954 -2.354023 131 55 20 
0.308087 -0.061617 -1.577407 70 62 50 
0.318357 -0.061617 -1.577407 39 32 28 
0.439177 -0.059888 -1.533125 121 75 40 
0.448598 -0.059813 -1.531215 117 78 36 
0.457996 -0.059739 -1.529309 127 82 37 
0.467953 -0.059739 -1.529309 137 83 40 
0.477909 -0.059739 -1.529309 114 73 37 
0.488474 -0.059813 -1.531215 74 52 21 
0.516449 -0.059590 -1.525512 150 149 124 
0.526381 -0.059590 -1.525512 36 38 18 
0.538318 -0.059813 -1.531215 14 26 8 
2.531250 -0.187500 -4.800000 142 122 99 
2.562500 -0.187500 -4.800000 139 121 99 
2.593750 -0.187500 -4.800000 139 123 103 
2.625000 -0.187500 -4.800000 136 122 105 
2.656250 -0.187500 -4.800000 122 110 95 
2.636015 -0.183908 -4.708046 109 99 86 
2.661568 -0.183556 -4.699044 110 102 89 
2.687023 -0.183206 -4.690076 115 106 93 
2.757576 -0.181818 -4.654546 95 89 73 
2.490694 -0.162437 -4.158376 87 83 66 
2.513514 -0.162162 -4.151351 82 80 62 
2.540540 -0.162162 -4.151351 81 80 62 
2.567568 -0.162162 -4.151351 71 72 54 
-2.611684 -0.192440 -4.222681 14 16 12 
-2.553480 -0.190153 -4.172496 11 18 17 
-2.505050 -0.188552 -4.137374 11 23 24 
-2.469799 -0.187919 -4.123490 13 28 30 
-1.664160 -0.140351 -3.079699 13 32 30 
-1.637953 -0.139825 -3.068165 7 17 13 
-1.615960 -0.139651 -3.064339 11 15 10 
-1.596010 -0.139651 -3.064339 7 16 11 
-1.576060 -0.139651 -3.064339 5 17 13 
-1.159420 -0.115942 -2.544100 8 18 12 
-1.133470 -0.114990 -2.523203 9 18 13 
-1.115897 -0.114872 -2.520616 9 19 14 
-1.750000 -0.218750 -4.800000 13 23 14 
-1.718750 -0.218750 -4.800000 13 22 15 
-1.687500 -0.218750 -4.800000 13 20 13 
-1.656250 -0.218750 -4.800000 14 18 12 
-1.625000 -0.218750 -4.800000 13 16 11 
0.265107 -0.109162 -2.395322 196 86 32 
0.279883 -0.108844 -2.388338 190 83 31 
0.294859 -0.108632 -2.383705 185 80 31 
0.308880 -0.108108 -2.372201 180 79 32 
0.321839 -0.107280 -2.354023 173 75 31 
0.337165 -0.107280 -2.354023 167 71 29 
0.352153 -0.107177 -2.351770 159 65 24 
0.318357 -0.071887 -1.577407 58 54 49 
0.288288 -0.063063 -1.383784 58 57 46 
0.297297 -0.063063 -1.383784 67 66 52 
0.306306 -0.063063 -1.383784 72 70 59 
0.315315 -0.063063 -1.383784 64 60 52 
0.344671 -0.063492 -1.393197 72 68 56 
0.353741 -0.063492 -1.393197 62 61 45 
0.362812 -0.063492 -1.393197 25 34 11 
0.371882 -0.063492 -1.393197 37 38 11 
0.380737 -0.063456 -1.392408 78 54 31 
0.389802 -0.063456 -1.392408 100 61 37 
0.398867 -0.063456 -1.392408 94 52 22 
0.407470 -0.063384 -1.390832 117 70 33 
0.414414 -0.063063 -1.383784 149 85 45 
0.423423 -0.063063 -1.383784 162 82 43 
0.435374 -0.063492 -1.393197 154 80 40 
0.540000 -0.070000 -1.536000 26 26 11 
0.551033 -0.070131 -1.538885 13 29 13 
2.562500 -0.218750 -4.800000 143 117 92 
2.593750 -0.218750 -4.800000 140 118 96 
2.625000 -0.218750 -4.800000 138 119 101 
2.656250 -0.218750 -4.800000 123 110 94 
2.636015 -0.214559 -4.708046 109 100 86 
2.656489 -0.213740 -4.690076 112 104 92 
2.681905 -0.213333 -4.681143 115 106 94 
2.696970 -0.212121 -4.654546 106 97 84 
2.727273 -0.212121 -4.654546 90 83 69 
2.747170 -0.211321 -4.636981 76 71 56 
2.736059 -0.208178 -4.568030 68 64 48 
2.745388 -0.206642 -4.534317 64 60 44 
2.759633 -0.205505 -4.509358 63 60 44 
2.567568 -0.189189 -4.151351 57 54 37 
-2.611684 -0.219931 -4.222681 13 16 13 
-2.553480 -0.217317 -4.172496 11 19 19 
-2.505050 -0.215488 -4.137374 12 25 26 
-2.478114 -0.215488 -4.137374 14 30 33 
-1.662078 -0.160200 -3.075845 15 32 32 
-1.640000 -0.160000 -3.072000 5 17 14 
-1.615960 -0.159601 -3.064339 6 15 9 
-1.159420 -0.132505 -2.544100 9 19 13 
-1.142857 -0.132505 -2.544100 8 18 12 
-1.656250 -0.250000 -4.800000 19 21 16 
0.280702 -0.124756 -2.395322 188 83 32 
0.279279 -0.072072 -1.383784 41 47 40 
0.288288 -0.072072 -1.383784 38 47 37 
0.297297 -0.072072 -1.383784 37 47 33 
0.306306 -0.072072 -1.383784 35 43 32 
0.315315 -0.072072 -1.383784 36 43 34 
0.324324 -0.072072 -1.383784 37 43 34 
0.333333 -0.072072 -1.383784 35 41 32 
0.342342 -0.072072 -1.383784 37 43 34 
0.351351 -0.072072 -1.383784 33 42 29 
0.360360 -0.072072 -1.383784 14 32 13 
0.369369 -0.072072 -1.383784 14 29 9 
0.378378 -0.072072 -1.383784 29 32 14 
0.387387 -0.072072 -1.383784 42 34 16 
0.396396 -0.072072 -1.383784 42 28 8 
0.405405 -0.072072 -1.383784 64 43 18 
0.414414 -0.072072 -1.383784 117 86 57 
0.423423 -0.072072 -1.383784 139 97 65 
0.432432 -0.072072 -1.383784 151 95 59 
0.444444 -0.072562 -1.393197 150 87 49 
0.540000 -0.080000 -1.536000 99 50 24 
0.550000 -0.080000 -1.536000 72 40 16 
0.561052 -0.080150 -1.538885 39 35 19 
0.571429 -0.080201 -1.539850 18 27 16 
0.581454 -0.080201 -1.539850 15 22 10 
2.562500 -0.250000 -4.800000 152 95 59 
2.593750 -0.250000 -4.800000 151 101 71 
2.625000 -0.250000 -4.800000 145 105 80 
2.656250 -0.250000 -4.800000 127 99 78 
2.636015 -0.245211 -4.708046 114 98 80 
2.651428 -0.243810 -4.681143 113 104 89 
2.666667 -0.242424 -4.654546 113 102 94 
2.696970 -0.242424 -4.654546 102 91 85 
2.716981 -0.241509 -4.636981 82 76 68 
2.747170 -0.241509 -4.636981 63 60 50 
2.756554 -0.239700 -4.602247 61 57 47 
2.755556 -0.237037 -4.551111 67 58 48 
2.774908 -0.236162 -4.534317 72 56 48 
-2.616179 -0.247849 -4.229949 13 16 14 
-2.566553 -0.245734 -4.193857 11 20 20 
-2.505050 -0.242424 -4.137374 12 25 27 
-2.478114 -0.242424 -4.137374 14 31 34 
-2.459460 -0.243243 -4.151351 17 35 37 
-1.660000 -0.180000 -3.072000 15 32 33 
-1.640000 -0.180000 -3.072000 4 17 14 
-1.164241 -0.149688 -2.554678 31 32 27 
-1.142857 -0.149068 -2.544100 33 34 29 
0.279279 -0.081081 -1.383784 20 29 23 
0.288288 -0.081081 -1.383784 17 29 21 
0.297297 -0.081081 -1.383784 13 25 16 
0.306306 -0.081081 -1.383784 8 20 11 
0.315315 -0.081081 -1.383784 8 20 11 
0.324324 -0.081081 -1.383784 8 20 12 
0.333333 -0.081081 -1.383784 9 21 13 
0.342342 -0.081081 -1.383784 11 23 14 
0.351351 -0.081081 -1.383784 13 27 17 
0.360360 -0.081081 -1.383784 8 30 13 
0.369369 -0.081081 -1.383784 6 32 12 
0.378378 -0.081081 -1.383784 11 34 15 
0.387387 -0.081081 -1.383784 13 30 14 
0.396396 -0.081081 -1.383784 15 26 10 
0.405405 -0.081081 -1.383784 30 37 18 
0.414414 -0.081081 -1.383784 63 66 43 
0.423423 -0.081081 -1.383784 85 83 56 
0.432432 -0.081081 -1.383784 100 87 57 
0.443941 -0.081540 -1.391620 99 73 43 
0.530000 -0.090000 -1.536000 147 84 43 
0.539326 -0.089888 -1.534082 142 82 39 
0.549313 -0.089888 -1.534082 133 78 35 
0.560000 -0.090000 -1.536000 114 70 31 
0.570356 -0.090056 -1.536961 94 58 23 
0.580363 -0.090056 -1.536961 75 43 13 
0.591108 -0.090169 -1.538885 86 59 33 
2.562500 -0.281250 -4.800000 159 80 47 
2.593750 -0.281250 -4.800000 157 81 52 
2.625000 -0.281250 -4.800000 154 85 58 
2.656250 -0.281250 -4.800000 144 86 60 
2.636015 -0.275862 -4.708046 140 90 65 
2.651428 -0.274286 -4.681143 134 94 70 
2.666667 -0.272727 -4.654546 125 96 76 
2.686792 -0.271698 -4.636981 114 94 75 
2.716981 -0.271698 -4.636981 91 79 60 
2.741996 -0.271186 -4.628249 68 64 46 
2.756554 -0.269663 -4.602247 58 60 42 
2.755556 -0.266667 -4.551111 56 60 45 
2.774908 -0.265683 -4.534317 57 60 48 
-2.616179 -0.275387 -4.229949 13 16 14 
-2.566553 -0.273038 -4.193857 11 20 20 
-2.505050 -0.269360 -4.137374 12 25 28 
-2.478114 -0.269360 -4.137374 14 31 34 
-2.459460 -0.270270 -4.151351 16 34 36 
-1.730871 -0.211082 -3.242217 5 16 14 
0.288288 -0.090090 -1.383784 23 32 25 
0.297297 -0.090090 -1.383784 17 26 19 
0.306306 -0.090090 -1.383784 12 20 13 
0.315315 -0.090090 -1.383784 10 18 11 
0.324324 -0.090090 -1.383784 9 17 10 
0.333333 -0.090090 -1.383784 10 18 11 
0.342342 -0.090090 -1.383784 10 18 11 
0.351351 -0.090090 -1.383784 14 24 16 
0.360360 -0.090090 -1.383784 9 29 14 
0.369369 -0.090090 -1.383784 5 30 13 
0.378378 -0.090090 -1.383784 13 34 19 
0.387387 -0.090090 -1.383784 17 32 20 
0.396396 -0.090090 -1.383784 19 27 17 
0.405405 -0.090090 -1.383784 27 29 17 
0.414414 -0.090090 -1.383784 46 43 28 
0.423423 -0.090090 -1.383784 76 72 53 
0.432432 -0.090090 -1.383784 72 69 51 
0.443941 -0.090600 -1.391620 54 49 30 
0.529338 -0.099875 -1.534082 101 57 22 
0.539326 -0.099875 -1.534082 118 65 25 
0.548971 -0.099813 -1.533125 132 74 29 
0.559301 -0.099875 -1.534082 146 81 25 
0.568933 -0.099813 -1.533125 148 81 21 
0.578915 -0.099813 -1.533125 142 80 26 
0.588896 -0.099813 -1.533125 134 80 33 
2.593750 -0.312500 -4.800000 155 85 61 
2.625000 -0.312500 -4.800000 156 83 56 
2.656250 -0.312500 -4.800000 155 82 50 
2.636015 -0.306513 -4.708046 156 83 47 
2.646388 -0.304182 -4.672244 155 85 48 
2.666667 -0.303030 -4.654546 144 87 47 
2.686792 -0.301887 -4.636981 135 88 48 
2.716981 -0.301887 -4.636981 119 80 44 
-2.643718 -0.302926 -4.229949 20 21 17 
-2.602740 -0.301370 -4.208220 13 16 14 
-2.566553 -0.300341 -4.193857 11 19 20 
-2.530612 -0.299320 -4.179592 12 25 27 
-2.482293 -0.296796 -4.144351 14 31 34 
-2.459460 -0.297297 -4.151351 15 33 35 
-2.405406 -0.297297 -4.151351 13 28 28 
0.306306 -0.099099 -1.383784 31 34 29 
0.315315 -0.099099 -1.383784 24 28 22 
0.324324 -0.099099 -1.383784 19 23 17 
0.333333 -0.099099 -1.383784 15 19 13 
0.342342 -0.099099 -1.383784 16 20 14 
0.351351 -0.099099 -1.383784 21 25 19 
0.360360 -0.099099 -1.383784 19 24 15 
0.369369 -0.099099 -1.383784 19 23 15 
0.378378 -0.099099 -1.383784 28 26 21 
0.387387 -0.099099 -1.383784 53 42 41 
0.511256 -0.127814 -1.784750 66 47 47 
0.522876 -0.127814 -1.784750 71 45 44 
0.519351 -0.109863 -1.534082 119 84 60 
0.528020 -0.109589 -1.530262 93 47 25 
0.538318 -0.109657 -1.531215 102 43 21 
0.548287 -0.109657 -1.531215 100 35 13 
0.558255 -0.109657 -1.531215 96 42 8 
0.567870 -0.109589 -1.530262 105 58 14 
0.576040 -0.109249 -1.525512 121 72 28 
0.584882 -0.109046 -1.522677 135 82 39 
0.598504 -0.109726 -1.532170 143 85 43 
2.625000 -0.343750 -4.800000 147 104 75 
2.656250 -0.343750 -4.800000 148 98 64 
2.687500 -0.343750 -4.800000 145 90 52 
2.661568 -0.336520 -4.699044 146 86 45 
2.671727 -0.333966 -4.663378 152 84 38 
2.696970 -0.333333 -4.654546 157 83 39 
-2.630137 -0.328767 -4.208220 18 20 15 
-2.602740 -0.328767 -4.208220 12 16 13 
-2.579760 -0.329331 -4.215437 10 19 19 
-2.534923 -0.327087 -4.186712 10 24 26 
-2.478114 -0.323232 -4.137374 11 28 32 
-2.337079 -0.308186 -3.944783 12 30 32 
-2.289348 -0.305246 -3.907154 15 32 32 
-2.204334 -0.297214 -3.804334 14 29 29 
0.315315 -0.108108 -1.383784 34 35 30 
0.324324 -0.108108 -1.383784 30 32 27 
0.333333 -0.108108 -1.383784 23 25 20 
0.342342 -0.108108 -1.383784 27 29 24 
0.351351 -0.108108 -1.383784 33 34 29 
0.360360 -0.108108 -1.383784 25 25 18 
0.369369 -0.108108 -1.383784 24 20 14 
0.515170 -0.118885 -1.521734 106 67 52 
0.525728 -0.119033 -1.523621 96 55 44 
0.537313 -0.119403 -1.528358 94 46 42 
0.547945 -0.119552 -1.530262 73 25 25 
0.557561 -0.119477 -1.529309 40 21 14 
0.566108 -0.119181 -1.525512 32 27 11 
0.574613 -0.118885 -1.521734 44 30 9 
0.583797 -0.118738 -1.519852 83 55 29 
0.593692 -0.118738 -1.519852 126 82 51 
0.604709 -0.118959 -1.522677 141 83 45 
0.621455 -0.118372 -1.515167 157 81 37 
0.630154 -0.118154 -1.512369 153 86 43 
-2.461539 -0.333333 -3.938462 22 24 19 
-2.607204 -0.356775 -4.215437 12 16 13 
-2.366560 -0.334405 -3.951126 8 25 29 
-2.314785 -0.330684 -3.907154 11 29 32 
-2.232558 -0.322481 -3.810233 17 33 34 
-2.170732 -0.317073 -3.746342 15 30 30 
-2.139818 -0.316109 -3.734955 16 33 35 
0.324324 -0.117117 -1.383784 36 37 32 
0.333333 -0.117117 -1.383784 30 31 26 
0.342342 -0.117117 -1.383784 30 32 27 
0.351351 -0.117117 -1.383784 30 34 28 
0.360360 -0.117117 -1.383784 17 30 18 
0.495356 -0.128793 -1.521734 93 54 31 
0.504951 -0.128713 -1.520792 97 67 45 
0.514852 -0.128713 -1.520792 80 58 42 
0.525077 -0.128793 -1.521734 60 44 35 
0.534985 -0.128793 -1.521734 40 28 27 
0.546245 -0.129112 -1.525512 29 23 26 
0.556176 -0.129112 -1.525512 17 25 23 
0.564356 -0.128713 -1.520792 11 24 15 
0.573902 -0.128633 -1.519852 13 19 7 
0.582716 -0.128395 -1.517037 44 40 25 
0.592227 -0.128316 -1.516101 89 73 55 
0.601726 -0.128237 -1.515167 102 74 52 
0.610086 -0.127921 -1.511439 109 72 48 
0.618405 -0.127607 -1.507730 118 73 45 
0.628221 -0.127607 -1.507730 130 75 38 
-2.465490 -0.359551 -3.944783 25 27 22 
-2.607204 -0.384220 -4.215437 13 17 14 
-2.552316 -0.384220 -4.215437 8 22 24 
-2.366560 -0.360129 -3.951126 8 25 29 
-2.314785 -0.356121 -3.907154 15 33 35 
-2.239502 -0.348367 -3.822084 21 37 38 
-2.174046 -0.341985 -3.752061 20 35 35 
-2.143075 -0.340944 -3.740639 19 38 40 
-2.118721 -0.340944 -3.740639 26 48 52 
-1.218750 -0.437500 -4.800000 221 205 187 
0.333333 -0.126126 -1.383784 32 36 30 
0.342342 -0.126126 -1.383784 31 35 29 
0.351351 -0.126126 -1.383784 27 34 27 
0.495663 -0.138786 -1.522677 84 57 29 
0.505263 -0.138700 -1.521734 85 65 39 
0.515170 -0.138700 -1.521734 79 67 45 
0.524752 -0.138614 -1.520792 44 45 28 
0.534985 -0.138700 -1.521734 10 24 12 
0.544554 -0.138614 -1.520792 5 28 18 
0.554455 -0.138614 -1.520792 8 28 15 
0.563659 -0.138443 -1.518912 9 25 10 
0.572839 -0.138272 -1.517037 9 21 6 
0.581639 -0.138016 -1.514233 30 38 24 
0.590406 -0.137761 -1.511439 61 64 51 
0.598773 -0.137423 -1.507730 65 64 51 
0.607843 -0.137255 -1.505882 68 62 50 
0.617647 -0.137255 -1.505882 74 63 49 
0.627836 -0.137339 -1.506806 89 60 38 
-2.465490 -0.385233 -3.944783 21 23 19 
-2.607204 -0.411664 -4.215437 14 17 15 
-2.584193 -0.412371 -4.222681 11 20 20 
-2.552316 -0.411664 -4.215437 11 25 27 
-2.366560 -0.385852 -3.951126 14 31 34 
-2.318471 -0.382166 -3.913376 21 39 41 
-2.242991 -0.373832 -3.828038 27 44 44 
-2.180704 -0.367534 -3.763553 28 45 45 
-2.149618 -0.366412 -3.752061 26 46 48 
-2.128440 -0.366972 -3.757798 27 50 54 
-2.113671 -0.368664 -3.775115 27 50 55 
-1.250000 -0.468750 -4.800000 218 204 185 
-1.218750 -0.468750 -4.800000 222 205 187 
0.333333 -0.135135 -1.383784 24 32 25 
0.342342 -0.135135 -1.383784 23 30 23 
0.497822 -0.149347 -1.529309 71 44 24 
0.505576 -0.148699 -1.522677 84 56 35 
0.515170 -0.148607 -1.521734 85 63 43 
0.524752 -0.148515 -1.520792 45 37 18 
0.534653 -0.148515 -1.520792 13 23 4 
0.544218 -0.148423 -1.519852 6 28 8 
0.554113 -0.148423 -1.519852 5 29 11 
0.562963 -0.148148 -1.517037 5 26 10 
0.571429 -0.147783 -1.513301 6 23 7 
0.579497 -0.147330 -1.508656 24 38 20 
0.588596 -0.147149 -1.506806 54 63 46 
0.597673 -0.146969 -1.504960 59 63 45 
0.606728 -0.146789 -1.503119 62 61 43 
0.617647 -0.147059 -1.505882 65 61 44 
-2.465490 -0.410915 -3.944783 17 21 22 
-2.607204 -0.439108 -4.215437 11 16 17 
-2.584193 -0.439863 -4.222681 10 18 20 
-2.552316 -0.439108 -4.215437 11 24 25 
-2.366560 -0.411576 -3.951126 16 32 33 
-2.322169 -0.408293 -3.919617 21 39 39 
-2.246490 -0.399376 -3.834009 26 46 44 
-2.187404 -0.393241 -3.775115 30 50 49 
-2.156202 -0.392037 -3.763553 32 53 55 
-2.134969 -0.392638 -3.769325 32 53 58 
-2.116923 -0.393846 -3.780923 30 51 58 
-2.115086 -0.398134 -3.822084 29 48 56 
-2.096724 -0.399376 -3.834009 29 44 51 
-2.075000 -0.400000 -3.840000 21 31 34 
-1.437500 -0.500000 -4.800000 69 60 54 
-1.406250 -0.500000 -4.800000 88 76 65 
-1.375000 -0.500000 -4.800000 85 75 60 
-1.343750 -0.500000 -4.800000 88 79 63 
-1.281250 -0.500000 -4.800000 209 193 181 
-1.250000 -0.500000 -4.800000 222 204 190 
-1.218750 -0.500000 -4.800000 224 205 190 
0.498132 -0.159402 -1.530262 56 33 18 
0.505890 -0.158710 -1.523621 81 55 40 
0.515170 -0.158514 -1.521734 80 58 44 
0.524752 -0.158416 -1.520792 43 31 18 
0.534323 -0.158318 -1.519852 17 20 7 
0.543545 -0.158122 -1.517974 10 25 12 
0.552404 -0.157830 -1.515167 7 30 14 
0.559166 -0.156959 -1.506806 3 27 11 
0.568627 -0.156863 -1.505882 4 24 7 
0.577370 -0.156575 -1.503119 23 37 19 
0.586439 -0.156384 -1.501283 55 63 44 
0.595122 -0.156098 -1.498537 62 63 42 
0.604878 -0.156098 -1.498537 66 61 40 
0.616137 -0.156479 -1.502201 68 60 41 
-2.461539 -0.435897 -3.938462 15 20 22 
-2.611684 -0.467354 -4.222681 9 15 17 
-2.588640 -0.468158 -4.229949 9 16 18 
-2.556701 -0.467354 -4.222681 8 19 20 
-2.366560 -0.437299 -3.951126 12 27 26 
-2.322169 -0.433812 -3.919617 18 35 34 
-2.253521 -0.425665 -3.846009 24 44 42 
-2.190769 -0.418462 -3.780923 30 51 49 
-2.162827 -0.417819 -3.775115 34 53 54 
-2.138249 -0.417819 -3.775115 35 53 57 
-2.116923 -0.418462 -3.780923 34 51 57 
-2.115086 -0.423017 -3.822084 32 48 55 
-2.093458 -0.423676 -3.828038 32 45 50 
-2.071763 -0.424337 -3.834009 23 30 32 
-2.056426 -0.426332 -3.852038 44 45 43 
-1.468750 -0.531250 -4.800000 33 36 31 
-1.437500 -0.531250 -4.800000 83 72 67 
-1.406250 -0.531250 -4.800000 94 78 69 
-1.375000 -0.531250 -4.800000 91 78 64 
-1.343750 -0.531250 -4.800000 96 87 71 
-1.312500 -0.531250 -4.800000 160 148 136 
-1.281250 -0.531250 -4.800000 218 200 191 
-1.250000 -0.531250 -4.800000 224 203 192 
-1.218750 -0.531250 -4.800000 226 206 193 
0.497822 -0.169259 -1.529309 64 46 31 
0.505890 -0.168630 -1.523621 75 55 41 
0.514852 -0.168317 -1.520792 66 51 38 
0.524752 -0.168317 -1.520792 29 25 14 
0.533663 -0.168005 -1.517974 15 22 14 
0.542540 -0.167694 -1.515167 8 25 16 
0.549356 -0.166769 -1.506806 6 29 15 
0.558824 -0.166667 -1.505882 3 27 9 
0.566891 -0.166158 -1.501283 4 24 6 
0.574559 -0.165551 -1.495800 23 36 19 
0.582878 -0.165149 -1.492168 56 63 45 
0.592233 -0.165049 -1.491262 62 62 43 
0.601942 -0.165049 -1.491262 66 60 41 
-2.461539 -0.461538 -3.938462 15 19 20 
-2.611684 -0.494845 -4.222681 11 17 17 
-2.597582 -0.497409 -4.244560 10 17 17 
-2.561101 -0.495697 -4.229949 9 19 18 
-2.366560 -0.463023 -3.951126 13 25 23 
-2.322169 -0.459330 -3.919617 13 29 26 
-2.253521 -0.450704 -3.846009 17 35 32 
-2.190769 -0.443077 -3.780923 25 43 40 
-2.166154 -0.443077 -3.780923 35 51 49 
-2.141538 -0.443077 -3.780923 42 55 55 
-2.139969 -0.447900 -3.822084 42 56 58 
-2.118380 -0.448598 -3.828038 41 53 56 
-2.096724 -0.449298 -3.834009 40 50 51 
-2.075000 -0.450000 -3.840000 34 39 37 
-2.053208 -0.450704 -3.846009 51 49 44 
-2.006270 -0.451411 -3.852038 81 73 64 
-1.500000 -0.562500 -4.800000 15 25 20 
-1.468750 -0.562500 -4.800000 58 61 55 
-1.437500 -0.562500 -4.800000 95 85 80 
-1.406250 -0.562500 -4.800000 100 86 77 
-1.375000 -0.562500 -4.800000 96 85 72 
-1.343750 -0.562500 -4.800000 105 98 82 
-1.312500 -0.562500 -4.800000 179 168 155 
-1.281250 -0.562500 -4.800000 220 201 192 
-1.250000 -0.562500 -4.800000 224 203 191 
-1.218750 -0.562500 -4.800000 227 207 194 
0.496894 -0.178882 -1.526460 72 51 36 
0.504951 -0.178218 -1.520792 56 37 22 
0.514852 -0.178218 -1.520792 53 42 27 
0.523780 -0.177888 -1.517974 22 23 10 
0.532676 -0.177559 -1.515167 9 24 12 
0.540209 -0.176796 -1.508656 4 27 16 
0.549020 -0.176471 -1.505882 5 30 16 
0.556777 -0.175824 -1.500366 3 26 10 
0.563791 -0.174970 -1.493074 4 22 6 
0.571775 -0.174440 -1.488552 22 35 17 
0.579710 -0.173913 -1.484058 56 62 45 
0.588306 -0.173599 -1.481374 62 62 44 
0.597951 -0.173599 -1.481374 66 61 42 
-2.461539 -0.487179 -3.938462 18 23 20 
-2.620690 -0.524138 -4.237242 15 20 17 
-2.606586 -0.526863 -4.259272 14 20 17 
-2.569948 -0.525043 -4.244560 17 26 22 
-2.366560 -0.488746 -3.951126 26 36 32 
-2.325879 -0.485623 -3.925879 27 40 35 
-2.250000 -0.475000 -3.840000 26 41 35 
-2.190769 -0.467692 -3.780923 27 41 35 
-2.162827 -0.466974 -3.775115 38 48 42 
-2.141538 -0.467692 -3.780923 51 59 55 
-2.143302 -0.473520 -3.828038 60 70 66 
-2.118380 -0.473520 -3.828038 65 74 72 
-2.093458 -0.473520 -3.828038 67 74 71 
-2.071763 -0.474259 -3.834009 70 71 67 
-2.050000 -0.475000 -3.840000 78 74 67 
-2.025000 -0.475000 -3.840000 88 80 71 
-1.987578 -0.472050 -3.816149 90 83 73 
-1.935681 -0.465544 -3.763553 91 86 77 
-1.902439 -0.463415 -3.746342 93 89 79 
-1.872340 -0.462006 -3.734955 96 91 81 
-1.531250 -0.593750 -4.800000 31 37 34 
-1.500000 -0.593750 -4.800000 26 35 29 
-1.468750 -0.593750 -4.800000 100 103 96 
-1.437500 -0.593750 -4.800000 126 119 113 
-1.406250 -0.593750 -4.800000 126 116 107 
-1.375000 -0.593750 -4.800000 121 115 102 
-1.343750 -0.593750 -4.800000 139 134 118 
-1.312500 -0.593750 -4.800000 201 191 177 
-1.281250 -0.593750 -4.800000 221 202 191 
-1.250000 -0.593750 -4.800000 226 204 191 
-1.218750 -0.593750 -4.800000 228 208 195 
0.496894 -0.188820 -1.526460 84 57 43 
0.504951 -0.188119 -1.520792 58 37 21 
0.513897 -0.187770 -1.517974 44 32 16 
0.523780 -0.187770 -1.517974 20 22 8 
0.533993 -0.187886 -1.518912 7 21 9 
0.542206 -0.187307 -1.514233 4 26 15 
0.549020 -0.186275 -1.505882 6 29 16 
0.554070 -0.184690 -1.493074 4 25 11 
0.561404 -0.183908 -1.486751 4 21 6 
0.567990 -0.182912 -1.478700 21 33 17 
0.576923 -0.182692 -1.476923 55 61 45 
0.586186 -0.182583 -1.476036 61 62 45 
0.596154 -0.182692 -1.476923 65 61 43 
0.614668 -0.176950 -1.430501 59 55 43 
0.623618 -0.176847 -1.429668 57 53 41 
-2.657439 -0.553633 -4.251903 25 30 24 
-2.634315 -0.554593 -4.259272 19 24 19 
-2.611111 -0.555556 -4.266667 16 22 16 
-2.569948 -0.552677 -4.244560 20 27 21 
-2.374193 -0.516129 -3.963871 30 38 32 
-2.325879 -0.511182 -3.925879 36 46 38 
-2.250000 -0.500000 -3.840000 39 49 42 
-2.187404 -0.491551 -3.775115 36 46 38 
-2.156202 -0.490046 -3.763553 37 43 34 
-2.131700 -0.490046 -3.763553 44 48 39 
-2.143302 -0.498442 -3.828038 55 61 54 
-2.125000 -0.500000 -3.840000 67 74 68 
-2.093458 -0.498442 -3.828038 74 79 73 
-2.075000 -0.500000 -3.840000 80 80 74 
-2.050000 -0.500000 -3.840000 86 82 73 
-2.025000 -0.500000 -3.840000 91 85 74 
-1.987578 -0.496894 -3.816149 92 87 77 
-1.935681 -0.490046 -3.763553 92 89 80 
-1.893778 -0.485584 -3.729287 94 91 82 
-1.866667 -0.484848 -3.723637 96 93 84 
-1.845220 -0.485584 -3.729287 100 97 88 
-1.500000 -0.625000 -4.800000 32 41 34 
-1.468750 -0.625000 -4.800000 100 104 96 
-1.437500 -0.625000 -4.800000 114 108 102 
-1.406250 -0.625000 -4.800000 113 105 97 
-1.375000 -0.625000 -4.800000 109 106 94 
-1.343750 -0.625000 -4.800000 141 139 124 
-1.312500 -0.625000 -4.800000 210 201 186 
-1.281250 -0.625000 -4.800000 224 204 191 
-1.250000 -0.625000 -4.800000 228 206 193 
-1.218750 -0.625000 -4.800000 229 209 196 
0.504015 -0.197653 -1.517974 56 35 19 
0.512631 -0.197166 -1.514233 45 33 17 
0.521525 -0.196802 -1.511439 24 23 9 
0.551724 -0.193587 -1.486751 5 24 11 
0.558363 -0.192539 -1.478700 5 20 7 
0.565947 -0.191847 -1.473381 20 31 17 
0.574506 -0.191502 -1.470736 52 58 43 
0.583035 -0.191159 -1.468100 61 62 46 
0.593656 -0.191502 -1.470736 63 61 44 
0.603954 -0.191732 -1.472499 64 59 43 
0.607832 -0.187025 -1.436353 57 53 41 
0.614668 -0.186263 -1.430501 56 52 40 
-2.718584 -0.594690 -4.349735 25 30 23 
-2.657343 -0.587413 -4.296504 22 27 20 
-2.615652 -0.584348 -4.274087 22 27 20 
-2.578856 -0.582322 -4.259272 21 26 19 
-2.378029 -0.542811 -3.970275 23 29 22 
-2.329600 -0.537600 -3.932160 24 30 23 
-2.250000 -0.525000 -3.840000 29 35 28 
-2.180704 -0.514548 -3.763553 32 38 30 
-2.149618 -0.512977 -3.752061 32 36 25 
-2.125191 -0.512977 -3.752061 30 33 22 
-1.990669 -0.522551 -3.822084 70 67 58 
-1.935681 -0.514548 -3.763553 70 69 60 
-1.893778 -0.509863 -3.729287 71 70 62 
-1.861027 -0.507553 -3.712387 72 71 63 
-1.842424 -0.509091 -3.723637 75 74 65 
-1.531250 -0.656250 -4.800000 9 18 14 
-1.500000 -0.656250 -4.800000 31 40 32 
-1.468750 -0.656250 -4.800000 77 81 72 
-1.437500 -0.656250 -4.800000 86 83 77 
-1.406250 -0.656250 -4.800000 87 83 76 
-1.375000 -0.656250 -4.800000 86 86 76 
-1.343750 -0.656250 -4.800000 127 127 114 
-1.312500 -0.656250 -4.800000 207 199 183 
-1.281250 -0.656250 -4.800000 225 205 190 
-1.250000 -0.656250 -4.800000 228 206 192 
-1.218750 -0.656250 -4.800000 230 210 196 
0.503393 -0.207279 -1.516101 60 52 29 
0.511685 -0.206642 -1.511439 58 55 34 
0.519608 -0.205882 -1.505882 27 31 13 
0.551391 -0.203144 -1.485852 6 23 12 
0.556355 -0.201439 -1.473381 6 19 8 
0.563919 -0.200717 -1.468100 16 26 13 
0.572110 -0.200238 -1.464601 37 43 29 
0.581298 -0.200119 -1.463728 47 49 34 
0.589774 -0.199762 -1.461118 55 54 39 
0.596450 -0.198817 -1.454201 61 58 42 
0.599532 -0.196721 -1.438876 63 59 45 
0.606414 -0.195918 -1.433003 61 57 45 
0.614668 -0.195576 -1.430501 59 55 43 
0.624345 -0.195690 -1.431334 61 57 45 
2.125000 -0.656250 -4.800000 61 57 45 
2.156250 -0.656250 -4.800000 59 55 43 
2.187500 -0.656250 -4.800000 57 53 41 
-2.690265 -0.623009 -4.349735 25 29 21 
-2.638597 -0.617544 -4.311579 29 33 24 
-2.601399 -0.615385 -4.296504 27 31 22 
-2.511945 -0.600683 -4.193857 26 30 21 
-2.333333 -0.564103 -3.938462 27 31 22 
-2.250000 -0.550000 -3.840000 32 35 27 
-2.174046 -0.537405 -3.752061 33 35 27 
-2.117293 -0.529323 -3.695639 29 33 21 
-2.086957 -0.527736 -3.684558 23 28 16 
-1.926829 -0.536585 -3.746342 60 61 53 
-1.893778 -0.534143 -3.729287 61 62 54 
-1.847076 -0.527736 -3.684558 61 62 54 
-1.836858 -0.531722 -3.712387 62 63 55 
-1.500000 -0.687500 -4.800000 45 54 44 
-1.468750 -0.687500 -4.800000 73 76 65 
-1.437500 -0.687500 -4.800000 78 75 69 
-1.406250 -0.687500 -4.800000 79 77 71 
-1.375000 -0.687500 -4.800000 77 79 70 
-1.343750 -0.687500 -4.800000 110 112 99 
-1.312500 -0.687500 -4.800000 191 184 168 
-1.281250 -0.687500 -4.800000 226 206 190 
-1.250000 -0.687500 -4.800000 229 206 192 
0.508869 -0.215291 -1.503119 45 63 34 
0.516443 -0.214373 -1.496711 20 38 15 
0.526188 -0.214373 -1.496711 10 27 10 
0.548736 -0.211793 -1.478700 8 22 13 
0.554361 -0.210275 -1.468100 6 19 9 
0.562239 -0.209649 -1.463728 13 23 11 
0.571429 -0.209524 -1.462857 26 32 20 
0.579572 -0.209026 -1.459383 31 34 20 
0.586982 -0.208284 -1.454201 36 37 22 
0.594340 -0.207547 -1.449057 45 43 28 
0.600587 -0.206452 -1.441408 50 47 34 
0.607477 -0.205607 -1.435514 56 52 40 
0.615743 -0.205248 -1.433003 61 57 45 
2.093750 -0.687500 -4.800000 62 58 46 
2.125000 -0.687500 -4.800000 61 57 45 
2.156250 -0.687500 -4.800000 62 58 46 
2.187500 -0.687500 -4.800000 60 56 44 
2.218750 -0.687500 -4.800000 58 55 42 
-2.709447 -0.655971 -4.380749 25 29 19 
-2.671403 -0.653641 -4.365187 26 30 21 
-2.652406 -0.655971 -4.380749 25 30 21 
-2.402640 -0.607261 -4.055446 35 38 30 
-2.250000 -0.575000 -3.840000 41 43 36 
-2.174046 -0.561832 -3.752061 40 43 35 
-2.110945 -0.551724 -3.684558 34 39 28 
-2.077612 -0.549254 -3.668060 26 33 23 
-1.926829 -0.560976 -3.746342 48 51 44 
-1.871064 -0.551724 -3.684558 48 51 44 
-1.833333 -0.547619 -3.657143 49 51 44 
-1.817638 -0.550075 -3.673543 49 52 44 
-1.561497 -0.491979 -3.285562 50 54 47 
-1.540107 -0.491979 -3.285562 52 55 46 
-1.500000 -0.718750 -4.800000 42 50 41 
-1.468750 -0.718750 -4.800000 53 57 47 
-1.437500 -0.718750 -4.800000 55 55 49 
-1.374046 -0.702290 -4.690076 53 54 49 
-1.340952 -0.700952 -4.681143 53 58 49 
-1.343750 -0.718750 -4.800000 80 83 70 
-1.312500 -0.718750 -4.800000 166 159 144 
0.508557 -0.224939 -1.502201 67 99 65 
0.515188 -0.223572 -1.493074 19 47 19 
0.522054 -0.222356 -1.484955 10 34 13 
0.530760 -0.221954 -1.482268 8 28 13 
0.539434 -0.221553 -1.479591 9 25 14 
0.546763 -0.220624 -1.473381 9 21 12 
0.554361 -0.219833 -1.468100 9 19 8 
0.561905 -0.219048 -1.462857 17 25 13 
0.570071 -0.218527 -1.459383 29 34 21 
0.578885 -0.218268 -1.457651 35 37 24 
0.586982 -0.217751 -1.454201 39 39 25 
0.593989 -0.216853 -1.448203 43 41 26 
0.600587 -0.215836 -1.441408 45 41 28 
0.608899 -0.215457 -1.438876 49 45 32 
0.618992 -0.215709 -1.440563 55 51 38 
2.093750 -0.718750 -4.800000 58 54 41 
2.125000 -0.718750 -4.800000 59 55 42 
2.156250 -0.718750 -4.800000 60 56 43 
2.187500 -0.718750 -4.800000 62 58 45 
2.218750 -0.718750 -4.800000 60 57 44 
-2.747764 -0.686941 -4.396422 20 25 20 
-2.709447 -0.684492 -4.380749 15 21 17 
-2.680927 -0.684492 -4.380749 14 22 19 
-2.647687 -0.683274 -4.372954 15 26 23 
-2.225000 -0.600000 -3.840000 22 33 34 
-2.149618 -0.586260 -3.752061 19 32 32 
-1.865471 -0.573991 -3.673543 17 24 15 
-1.833333 -0.571429 -3.657143 20 23 15 
-1.809524 -0.571429 -3.657143 20 23 16 
-1.785714 -0.571429 -3.657143 19 24 18 
-1.595687 -0.517520 -3.312129 17 25 21 
-1.555260 -0.511318 -3.272437 16 24 22 
-1.533955 -0.511318 -3.272437 16 23 19 
-1.718750 -0.750000 -4.800000 14 22 16 
-1.687500 -0.750000 -4.800000 16 23 19 
-1.656250 -0.750000 -4.800000 14 22 20 
-1.625000 -0.750000 -4.800000 10 19 18 
-1.593750 -0.750000 -4.800000 9 17 17 
-1.562500 -0.750000 -4.800000 8 16 15 
-1.531250 -0.750000 -4.800000 9 17 14 
-1.500000 -0.750000 -4.800000 17 22 18 
-1.468750 -0.750000 -4.800000 17 20 18 
-1.404580 -0.732824 -4.690076 15 20 18 
-1.366224 -0.728653 -4.663378 12 20 18 
-1.330813 -0.725898 -4.645747 12 22 16 
-1.305503 -0.728653 -4.663378 38 42 34 
0.503937 -0.232586 -1.488552 116 128 102 
0.512387 -0.232024 -1.484955 48 58 35 
0.520169 -0.231186 -1.479591 31 38 18 
0.529483 -0.231047 -1.478700 24 29 12 
0.538138 -0.230631 -1.476036 28 31 16 
0.546763 -0.230216 -1.473381 28 29 14 
0.554361 -0.229391 -1.468100 29 29 14 
0.561905 -0.228571 -1.462857 35 35 19 
0.569733 -0.227893 -1.458516 45 44 27 
0.578885 -0.227758 -1.457651 52 49 32 
0.586982 -0.227219 -1.454201 56 53 36 
0.594690 -0.226549 -1.449912 58 54 37 
0.602707 -0.226015 -1.446498 58 53 36 
0.611046 -0.225617 -1.443948 55 50 34 
2.062500 -0.750000 -4.800000 53 48 31 
2.093750 -0.750000 -4.800000 53 48 32 
2.125000 -0.750000 -4.800000 55 50 34 
2.156250 -0.750000 -4.800000 57 52 35 
2.187500 -0.750000 -4.800000 59 54 38 
2.218750 -0.750000 -4.800000 59 55 38 
2.250000 -0.750000 -4.800000 58 55 41 
1.064133 -0.304038 -1.945843 130 119 97 
1.011905 -0.285714 -1.828572 131 120 101 
1.089470 -0.304038 -1.945843 129 116 100 
-2.747764 -0.715564 -4.396422 18 23 21 
-2.719141 -0.715564 -4.396422 12 19 18 
-2.690519 -0.715564 -4.396422 10 21 20 
-2.509275 -0.674536 -4.144351 9 25 25 
-2.482293 -0.674536 -4.144351 11 30 31 
-1.833333 -0.595238 -3.657143 27 32 22 
-1.783061 -0.594354 -3.651709 9 15 10 
-1.595687 -0.539084 -3.312129 7 16 15 
-1.549072 -0.530504 -3.259417 5 15 16 
-1.527851 -0.530504 -3.259417 5 15 14 
-1.718750 -0.781250 -4.800000 17 25 22 
-1.687500 -0.781250 -4.800000 15 24 21 
-1.656250 -0.781250 -4.800000 12 21 18 
-1.625000 -0.781250 -4.800000 10 19 16 
-1.593750 -0.781250 -4.800000 9 18 15 
-1.562500 -0.781250 -4.800000 9 18 15 
-1.531250 -0.781250 -4.800000 18 26 23 
-1.500000 -0.781250 -4.800000 22 25 25 
-1.437858 -0.764818 -4.699044 23 26 27 
-1.399240 -0.760456 -4.672244 19 28 29 
-1.361059 -0.756144 -4.645747 10 23 22 
-1.325800 -0.753296 -4.628249 5 16 13 
-1.295669 -0.753296 -4.628249 19 23 17 
0.500000 -0.240385 -1.476923 73 66 45 
0.509615 -0.240385 -1.476923 58 51 30 
0.519231 -0.240385 -1.476923 51 44 23 
0.528846 -0.240385 -1.476923 49 41 21 
0.538462 -0.240385 -1.476923 51 44 23 
0.546763 -0.239808 -1.473381 53 46 25 
0.553699 -0.238663 -1.466349 55 47 27 
0.561570 -0.237954 -1.461987 56 49 28 
0.569733 -0.237389 -1.458516 58 50 30 
0.578885 -0.237248 -1.457651 58 51 30 
0.586982 -0.236686 -1.454201 59 51 30 
0.595041 -0.236128 -1.450768 59 51 30 
0.603418 -0.235710 -1.448203 58 50 30 
0.612846 -0.235710 -1.448203 57 49 28 
2.062500 -0.781250 -4.800000 56 48 27 
2.093750 -0.781250 -4.800000 56 48 28 
2.125000 -0.781250 -4.800000 58 50 30 
2.156250 -0.781250 -4.800000 60 52 31 
2.187500 -0.781250 -4.800000 60 52 31 
2.218750 -0.781250 -4.800000 58 50 30 
2.250000 -0.781250 -4.800000 58 51 34 
1.000754 -0.301432 -1.851997 128 116 95 
0.997773 -0.296956 -1.824499 131 119 98 
1.003690 -0.295203 -1.813727 131 119 101 
1.014001 -0.294768 -1.811054 128 116 101 
1.025792 -0.294768 -1.811054 116 104 92 
-2.747764 -0.744186 -4.396422 18 24 22 
-2.719141 -0.744186 -4.396422 13 20 19 
-2.680927 -0.741533 -4.380749 10 21 22 
-2.505050 -0.700337 -4.137374 10 26 26 
-2.473950 -0.699160 -4.130420 12 31 32 
-1.538867 -0.548090 -3.237945 4 14 15 
